# .PCD v0.7 - Point Cloud Data file format
VERSION 0.7
FIELDS x y z intensity
SIZE 4 4 4 4
TYPE F F F F
COUNT 1 1 1 1
WIDTH 443
HEIGHT 1
VIEWPOINT 0 0 0 1 0 0 0
POINTS 443
DATA ascii
0.31121722 -0.25934768 0.47423577 2.1086557
0.37386611 -0.26170626 0.47854862 2.0896518
0.30380729 -0.25193775 0.47423577 2.1086557
0.31121722 -0.25193775 0.47423577 2.1086557
0.32603711 -0.25193775 0.47423577 2.1086557
0.33344704 -0.25193775 0.47423577 2.1086557
0.34395683 -0.25422895 0.47854862 2.0896518
0.38531655 -0.25193775 0.47423577 2.1086557
0.31121722 -0.24452782 0.47423577 2.1086557
0.31862715 -0.24452782 0.47423577 2.1086557
0.32603708 -0.24452782 0.47423577 2.1086557
0.34395683 -0.24675164 0.47854862 2.0896518
0.38531655 -0.24452782 0.47423577 2.1086557
0.31862715 -0.23711789 0.47423577 2.1086557
0.32603708 -0.23711789 0.47423577 2.1086557
0.34085697 -0.23711789 0.47423577 2.1086557
0.37049669 -0.23711789 0.47423577 2.1086557
0.38531655 -0.23711789 0.47423577 2.1086557
3.6437502 -2.2 4.4000001 0.22727272
0.31862715 -0.22970796 0.47423577 2.1086557
0.32603708 -0.22970796 0.47423577 2.1086557
0.34085697 -0.22970796 0.47423577 2.1086557
0.37049669 -0.22970796 0.47423577 2.1086557
0.38531655 -0.22970796 0.47423577 2.1086557
3.6437502 -2.1312501 4.4000001 0.22727272
0.31862715 -0.22229801 0.47423577 2.1086557
0.32603708 -0.22229801 0.47423577 2.1086557
0.34085697 -0.22229801 0.47423577 2.1086557
0.37049669 -0.22229801 0.47423577 2.1086557
0.38531655 -0.22229801 0.47423577 2.1086557
3.6437502 -2.0625 4.4000001 0.22727272
2.75 -1.9937501 4.4000001 0.22727272
0.31862715 -0.21488808 0.47423577 2.1086557
0.32603708 -0.21488808 0.47423577 2.1086557
0.34085697 -0.21488808 0.47423577 2.1086557
0.37049669 -0.21488808 0.47423577 2.1086557
0.38531655 -0.21488808 0.47423577 2.1086557
3.6437502 -1.9937501 4.4000001 0.22727272
2.75 -1.9250001 4.4000001 0.22727272
0.31862715 -0.20747815 0.47423577 2.1086557
0.32603708 -0.20747815 0.47423577 2.1086557
0.34085697 -0.20747815 0.47423577 2.1086557
0.37049669 -0.20747815 0.47423577 2.1086557
0.38531655 -0.20747815 0.47423577 2.1086557
3.6437502 -1.9250001 4.4000001 0.22727272
2.75 -1.85625 4.4000001 0.22727272
0.31862715 -0.20006822 0.47423577 2.1086557
0.32603708 -0.20006822 0.47423577 2.1086557
0.34085697 -0.20006822 0.47423577 2.1086557
0.38531655 -0.20006822 0.47423577 2.1086557
3.6437502 -1.85625 4.4000001 0.22727272
2.75 -1.7875 4.4000001 0.22727272
0.31862715 -0.19265828 0.47423577 2.1086557
0.32603708 -0.19265828 0.47423577 2.1086557
0.34085697 -0.19265828 0.47423577 2.1086557
0.38531655 -0.19265828 0.47423577 2.1086557
3.6437502 -1.7875 4.4000001 0.22727272
2.75 -1.71875 4.4000001 0.22727272
0.31862715 -0.18524835 0.47423577 2.1086557
0.32603708 -0.18524835 0.47423577 2.1086557
0.35360414 -0.19217616 0.49197099 2.0326402
0.38531655 -0.18524835 0.47423577 2.1086557
3.6437502 -1.71875 4.4000001 0.22727272
2.75 -1.6500001 4.4000001 0.22727272
0.31862715 -0.17783841 0.47423577 2.1086557
0.32603708 -0.17783841 0.47423577 2.1086557
0.35694131 -0.18623026 0.49661401 2.0136364
0.38531655 -0.17783841 0.47423577 2.1086557
3.6437502 -1.65 4.4000001 0.22727272
2.75 -1.5812501 4.4000001 0.22727272
0.31862715 -0.17042848 0.47423577 2.1086557
0.32603708 -0.17042848 0.47423577 2.1086557
0.36734176 -0.18367088 0.5110842 1.9566247
0.43204084 -0.19109498 0.53174257 1.8806093
3.6437502 -1.5812501 4.4000001 0.22727272
2.75 -1.5125 4.4000001 0.22727272
2.8187501 -1.5125 4.4000001 0.22727272
0.31862715 -0.16301855 0.47423577 2.1086557
0.32603708 -0.16301854 0.47423577 2.1086557
3.6437502 -1.5125 4.4000001 0.22727272
2.75 -1.44375 4.4000001 0.22727272
2.8187501 -1.44375 4.4000001 0.22727272
0.31862715 -0.15560861 0.47423577 2.1086557
0.32603711 -0.15560861 0.47423577 2.1086557
3.575 -1.44375 4.4000001 0.22727272
3.6437502 -1.44375 4.4000001 0.22727272
2.75 -1.375 4.4000001 0.22727272
2.8187501 -1.375 4.4000001 0.22727272
0.31862715 -0.14819868 0.47423577 2.1086557
0.32603708 -0.14819868 0.47423577 2.1086557
3.1625001 -1.375 4.4000001 0.22727272
3.575 -1.375 4.4000001 0.22727272
3.6437502 -1.375 4.4000001 0.22727272
2.75 -1.30625 4.4000001 0.22727272
2.8187501 -1.30625 4.4000001 0.22727272
0.31862715 -0.14078875 0.47423577 2.1086557
0.32603708 -0.14078875 0.47423577 2.1086557
3.1625001 -1.30625 4.4000001 0.22727272
3.575 -1.30625 4.4000001 0.22727272
3.6437502 -1.30625 4.4000001 0.22727272
-1.16875 -1.2375001 4.4000001 0.22727272
-1.1 -1.2375001 4.4000001 0.22727272
-1.03125 -1.2375001 4.4000001 0.22727272
-0.89375001 -1.2375001 4.4000001 0.22727272
-0.82499999 -1.2375001 4.4000001 0.22727272
-0.6875 -1.2375001 4.4000001 0.22727272
2.75 -1.2375001 4.4000001 0.22727272
2.8187501 -1.2375001 4.4000001 0.22727272
0.31862715 -0.1333788 0.47423577 2.1086557
0.32603708 -0.1333788 0.47423577 2.1086557
3.1625001 -1.2375001 4.4000001 0.22727272
3.575 -1.2375001 4.4000001 0.22727272
3.6437502 -1.2375001 4.4000001 0.22727272
-1.2375001 -1.16875 4.4000001 0.22727272
-0.11871802 -0.1441576 0.54271096 1.8426014
-0.82499999 -1.16875 4.4000001 0.22727272
-0.75625002 -1.16875 4.4000001 0.22727272
-0.6875 -1.16875 4.4000001 0.22727272
-0.61875004 -1.16875 4.4000001 0.22727272
2.75 -1.16875 4.4000001 0.22727272
2.8187501 -1.16875 4.4000001 0.22727272
0.31862715 -0.12596887 0.47423577 2.1086557
0.32603708 -0.12596887 0.47423577 2.1086557
3.1625001 -1.16875 4.4000001 0.22727272
3.575 -1.16875 4.4000001 0.22727272
3.6437502 -1.16875 4.4000001 0.22727272
-1.1 -1.1 4.4000001 0.22727272
-0.11871802 -0.13567774 0.54271096 1.8426014
-0.096329138 -0.11855894 0.47423577 2.1086557
-0.066689402 -0.11855894 0.47423577 2.1086557
-0.55000001 -1.1 4.4000001 0.22727272
-0.48125002 -1.1 4.4000001 0.22727272
0.82499999 -1.1 4.4000001 0.22727272
0.96250004 -1.1 4.4000001 0.22727272
2.75 -1.1 4.4000001 0.22727272
2.8187501 -1.1 4.4000001 0.22727272
0.31862715 -0.11855894 0.47423577 2.1086557
0.32603708 -0.11855894 0.47423577 2.1086557
3.1625001 -1.1 4.4000001 0.22727272
3.575 -1.1 4.4000001 0.22727272
3.6437502 -1.1 4.4000001 0.22727272
-1.03125 -1.03125 4.4000001 0.22727272
-0.96250004 -1.03125 4.4000001 0.22727272
-0.066689402 -0.11114901 0.47423577 2.1086557
-0.059279472 -0.11114901 0.47423577 2.1086557
-0.41249999 -1.03125 4.4000001 0.22727272
0.61875004 -1.03125 4.4000001 0.22727272
0.75625002 -1.03125 4.4000001 0.22727272
0.96250004 -1.03125 4.4000001 0.22727272
1.03125 -1.03125 4.4000001 0.22727272
1.1 -1.03125 4.4000001 0.22727272
1.16875 -1.03125 4.4000001 0.22727272
1.2375001 -1.03125 4.4000001 0.22727272
1.30625 -1.03125 4.4000001 0.22727272
2.75 -1.03125 4.4000001 0.22727272
2.8187501 -1.03125 4.4000001 0.22727272
0.31862715 -0.11114901 0.47423577 2.1086557
0.32603708 -0.11114901 0.47423577 2.1086557
3.1625001 -1.03125 4.4000001 0.22727272
3.575 -1.03125 4.4000001 0.22727272
3.6437502 -1.03125 4.4000001 0.22727272
-1.65 -0.96250004 4.4000001 0.22727272
-1.16875 -0.96250004 4.4000001 0.22727272
-0.96250004 -0.96250004 4.4000001 0.22727272
-0.059818577 -0.10468251 0.47854862 2.0896518
-0.052341256 -0.10468251 0.47854862 2.0896518
-0.34375 -0.96250004 4.4000001 0.22727272
0.27500001 -0.96250004 4.4000001 0.22727272
0.34375 -0.96250004 4.4000001 0.22727272
0.41249999 -0.96250004 4.4000001 0.22727272
0.48125002 -0.96250004 4.4000001 0.22727272
0.61875004 -0.96250004 4.4000001 0.22727272
0.75625002 -0.96250004 4.4000001 0.22727272
1.2375001 -0.96250004 4.4000001 0.22727272
1.30625 -0.96250004 4.4000001 0.22727272
1.375 -0.96250004 4.4000001 0.22727272
1.5125 -0.96250004 4.4000001 0.22727272
2.75 -0.96250004 4.4000001 0.22727272
2.8187501 -0.96250004 4.4000001 0.22727272
0.31862715 -0.10373908 0.47423577 2.1086557
0.32603708 -0.10373908 0.47423577 2.1086557
3.1625001 -0.96250004 4.4000001 0.22727272
3.575 -0.96250004 4.4000001 0.22727272
3.6437502 -0.96250004 4.4000001 0.22727272
-1.71875 -0.89375001 4.4000001 0.22727272
-1.65 -0.89375001 4.4000001 0.22727272
-0.96250004 -0.89375001 4.4000001 0.22727272
-0.89375001 -0.89375001 4.4000001 0.22727272
-0.052341256 -0.097205184 0.47854862 2.0896518
-0.34375 -0.89375001 4.4000001 0.22727272
-0.27500001 -0.89375001 4.4000001 0.22727272
0.1375 -0.89375001 4.4000001 0.22727272
0.27500001 -0.89375001 4.4000001 0.22727272
0.34375 -0.89375001 4.4000001 0.22727272
0.41249999 -0.89375001 4.4000001 0.22727272
0.48125002 -0.89375001 4.4000001 0.22727272
1.5812501 -0.89375001 4.4000001 0.22727272
1.65 -0.89375001 4.4000001 0.22727272
2.75 -0.89375001 4.4000001 0.22727272
2.8187501 -0.89375001 4.4000001 0.22727272
0.31862715 -0.096329138 0.47423577 2.1086557
0.32603708 -0.096329138 0.47423577 2.1086557
3.1625001 -0.89375001 4.4000001 0.22727272
3.575 -0.89375001 4.4000001 0.22727272
3.6437502 -0.89375001 4.4000001 0.22727272
-0.75625002 -0.82499999 4.4000001 0.22727272
-0.6875 -0.82500005 4.4000001 0.22727272
-0.052341256 -0.089727864 0.47854862 2.0896518
-0.044459604 -0.088919207 0.47423577 2.1086557
-0.03704967 -0.088919207 0.47423577 2.1086557
-0.029639736 -0.088919207 0.47423577 2.1086557
0.1375 -0.82499999 4.4000001 0.22727272
0.029639736 -0.088919207 0.47423577 2.1086557
1.65 -0.82499999 4.4000001 0.22727272
2.75 -0.82499999 4.4000001 0.22727272
2.8187501 -0.82499999 4.4000001 0.22727272
0.31862715 -0.088919207 0.47423577 2.1086557
0.32603708 -0.088919207 0.47423577 2.1086557
3.1625001 -0.82499999 4.4000001 0.22727272
3.575 -0.82499999 4.4000001 0.22727272
3.6437502 -0.82499999 4.4000001 0.22727272
-1.44375 -0.75625002 4.4000001 0.22727272
-1.375 -0.75625002 4.4000001 0.22727272
-0.89375001 -0.75625002 4.4000001 0.22727272
-0.6875 -0.75625002 4.4000001 0.22727272
-0.044459604 -0.08150927 0.47423577 2.1086557
-0.029639736 -0.08150927 0.47423577 2.1086557
0.1375 -0.75625002 4.4000001 0.22727272
0.27500001 -0.75625002 4.4000001 0.22727272
1.44375 -0.75625002 4.4000001 0.22727272
1.5125 -0.75625002 4.4000001 0.22727272
1.65 -0.75625002 4.4000001 0.22727272
2.8187501 -0.75625002 4.4000001 0.22727272
0.31862715 -0.08150927 0.47423577 2.1086557
0.32603708 -0.08150927 0.47423577 2.1086557
3.1625001 -0.75625002 4.4000001 0.22727272
3.575 -0.75625002 4.4000001 0.22727272
-1.7875 -0.6875 4.4000001 0.22727272
-1.71875 -0.6875 4.4000001 0.22727272
-1.5812501 -0.6875 4.4000001 0.22727272
-1.5125 -0.6875 4.4000001 0.22727272
-0.75625002 -0.6875 4.4000001 0.22727272
0.1375 -0.6875 4.4000001 0.22727272
0.27500001 -0.6875 4.4000001 0.22727272
1.65 -0.6875 4.4000001 0.22727272
2.8187501 -0.6875 4.4000001 0.22727272
0.31862715 -0.07409934 0.47423577 2.1086557
0.32603711 -0.07409934 0.47423577 2.1086557
3.1625001 -0.6875 4.4000001 0.22727272
-0.22047633 -0.076318726 0.54271096 1.8426014
-0.20983233 -0.075539641 0.53717077 1.8616054
-1.5125 -0.61875004 4.4000001 0.22727272
-1.03125 -0.61875004 4.4000001 0.22727272
-0.044459604 -0.066689402 0.47423577 2.1086557
-0.03704967 -0.066689402 0.47423577 2.1086557
-0.27500001 -0.61875004 4.4000001 0.22727272
0.1375 -0.61875004 4.4000001 0.22727272
0.20625 -0.61875004 4.4000001 0.22727272
0.27500001 -0.61875004 4.4000001 0.22727272
1.5125 -0.61875004 4.4000001 0.22727272
1.65 -0.61875004 4.4000001 0.22727272
2.8187501 -0.61875004 4.4000001 0.22727272
0.31862715 -0.066689402 0.47423577 2.1086557
0.32603708 -0.066689402 0.47423577 2.1086557
3.1625001 -0.61875004 4.4000001 0.22727272
3.575 -0.61875004 4.4000001 0.22727272
3.6437502 -0.61875004 4.4000001 0.22727272
-0.21822563 -0.067146346 0.53717077 1.8616054
-0.20983233 -0.067146346 0.53717077 1.8616054
-1.16875 -0.55000001 4.4000001 0.22727272
-1.1 -0.55000001 4.4000001 0.22727272
-1.03125 -0.55000001 4.4000001 0.22727272
-0.6875 -0.55000001 4.4000001 0.22727272
-0.044459604 -0.059279472 0.47423577 2.1086557
-0.03704967 -0.059279472 0.47423577 2.1086557
-0.27500001 -0.55000001 4.4000001 0.22727272
-0.20625 -0.55000001 4.4000001 0.22727272
0.1375 -0.55000001 4.4000001 0.22727272
0.20625 -0.55000001 4.4000001 0.22727272
0.27500001 -0.55000001 4.4000001 0.22727272
1.5125 -0.55000001 4.4000001 0.22727272
1.65 -0.55000001 4.4000001 0.22727272
2.8187501 -0.55000001 4.4000001 0.22727272
0.31862715 -0.059279472 0.47423577 2.1086557
0.32603708 -0.059279472 0.47423577 2.1086557
3.1625001 -0.55000001 4.4000001 0.22727272
3.575 -0.55000001 4.4000001 0.22727272
3.6437502 -0.55000001 4.4000001 0.22727272
-0.19265828 -0.051869538 0.47423577 2.1086557
-0.18524835 -0.051869538 0.47423577 2.1086557
-1.16875 -0.48125002 4.4000001 0.22727272
-0.41249999 -0.48125002 4.4000001 0.22727272
-0.03704967 -0.051869538 0.47423577 2.1086557
-0.27500001 -0.48125002 4.4000001 0.22727272
-0.20625 -0.48125002 4.4000001 0.22727272
0.1375 -0.48125002 4.4000001 0.22727272
0.27500001 -0.48125002 4.4000001 0.22727272
1.5125 -0.48125002 4.4000001 0.22727272
1.65 -0.48125002 4.4000001 0.22727272
2.8187501 -0.48125002 4.4000001 0.22727272
0.31862715 -0.051869538 0.47423577 2.1086557
0.32603708 -0.051869538 0.47423577 2.1086557
3.1625001 -0.48125002 4.4000001 0.22727272
3.575 -0.48125002 4.4000001 0.22727272
3.6437502 -0.48125002 4.4000001 0.22727272
-0.6875 -0.41249999 4.4000001 0.22727272
-0.41249999 -0.41249999 4.4000001 0.22727272
-0.34375 -0.41249999 4.4000001 0.22727272
-0.27500001 -0.41249999 4.4000001 0.22727272
0.1375 -0.41249999 4.4000001 0.22727272
0.20625 -0.41249999 4.4000001 0.22727272
0.27500001 -0.41249999 4.4000001 0.22727272
1.5125 -0.41249999 4.4000001 0.22727272
1.65 -0.41249999 4.4000001 0.22727272
2.8187501 -0.41249999 4.4000001 0.22727272
0.31862715 -0.044459604 0.47423577 2.1086557
0.32603708 -0.044459604 0.47423577 2.1086557
3.1625001 -0.41249999 4.4000001 0.22727272
3.575 -0.41249999 4.4000001 0.22727272
3.6437502 -0.41250002 4.4000001 0.22727272
-0.48125002 -0.34375 4.4000001 0.22727272
-0.41249999 -0.34375 4.4000001 0.22727272
-0.34375 -0.34375 4.4000001 0.22727272
0.1375 -0.34375 4.4000001 0.22727272
0.20625 -0.34375 4.4000001 0.22727272
1.5125 -0.34375 4.4000001 0.22727272
1.5812501 -0.34375 4.4000001 0.22727272
1.65 -0.34375 4.4000001 0.22727272
2.8187501 -0.34375 4.4000001 0.22727272
0.31862715 -0.03704967 0.47423577 2.1086557
0.32603708 -0.03704967 0.47423577 2.1086557
3.1625001 -0.34375 4.4000001 0.22727272
3.575 -0.34375 4.4000001 0.22727272
3.6437502 -0.34375 4.4000001 0.22727272
-0.28143007 -0.043296933 0.69275093 1.4435203
-0.20359717 -0.032575548 0.52120876 1.918617
-0.19545329 -0.032575548 0.52120876 1.918617
-0.1873094 -0.032575548 0.52120876 1.918617
0.1375 -0.27500001 4.4000001 0.22727272
0.20625 -0.27500001 4.4000001 0.22727272
0.27500001 -0.27500001 4.4000001 0.22727272
1.5125 -0.27500001 4.4000001 0.22727272
1.5812501 -0.27500001 4.4000001 0.22727272
1.65 -0.27500001 4.4000001 0.22727272
2.8187501 -0.27500001 4.4000001 0.22727272
2.8875 -0.27500001 4.4000001 0.22727272
0.31862715 -0.029639736 0.47423577 2.1086557
0.32603708 -0.029639736 0.47423577 2.1086557
3.1625001 -0.27500001 4.4000001 0.22727272
3.575 -0.27500001 4.4000001 0.22727272
-0.42789295 -0.049372263 1.053275 0.94941968
-0.27060583 -0.0324727 0.69275093 1.4435203
-0.24895737 -0.0324727 0.69275093 1.4435203
-0.36206329 -0.049372263 1.053275 0.94941968
-1.375 -0.20625 4.4000001 0.22727272
-0.48125002 -0.20625 4.4000001 0.22727272
-0.41249999 -0.20625 4.4000001 0.22727272
-0.34375 -0.20625 4.4000001 0.22727272
0.1375 -0.20625 4.4000001 0.22727272
0.20625 -0.20625 4.4000001 0.22727272
0.27500001 -0.20625 4.4000001 0.22727272
1.5125 -0.20625 4.4000001 0.22727272
1.5812501 -0.20625 4.4000001 0.22727272
1.65 -0.20625 4.4000001 0.22727272
2.8187501 -0.20625 4.4000001 0.22727272
2.8875 -0.20625 4.4000001 0.22727272
0.31862715 -0.022229802 0.47423577 2.1086557
0.32603708 -0.022229802 0.47423577 2.1086557
3.1625001 -0.20625001 4.4000001 0.22727272
-0.3785207 -0.032914843 1.053275 0.94941968
-0.36945844 -0.033587132 1.0747882 0.93041587
-0.35266489 -0.033587132 1.0747882 0.93041587
-1.375 -0.1375 4.4000001 0.22727272
-0.55000001 -0.1375 4.4000001 0.22727272
-0.48125002 -0.1375 4.4000001 0.22727272
-0.41249999 -0.1375 4.4000001 0.22727272
0.1375 -0.1375 4.4000001 0.22727272
0.20625 -0.1375 4.4000001 0.22727272
0.27500001 -0.1375 4.4000001 0.22727272
1.5125 -0.1375 4.4000001 0.22727272
1.5812501 -0.1375 4.4000001 0.22727272
1.65 -0.1375 4.4000001 0.22727272
2.8187501 -0.1375 4.4000001 0.22727272
0.31862715 -0.014819868 0.47423577 2.1086557
0.32603708 -0.014819868 0.47423577 2.1086557
0.33344704 -0.014819868 0.47423577 2.1086557
3.1625001 -0.1375 4.4000001 0.22727272
-0.55000001 -0.068750001 4.4000001 0.22727272
-0.48125002 -0.068750001 4.4000001 0.22727272
0.20625001 -0.068750001 4.4000001 0.22727272
0.27500001 -0.068750001 4.4000001 0.22727272
1.5812501 -0.068750001 4.4000001 0.22727272
0.33344704 -0.007409934 0.47423577 2.1086557
3.1625001 -0.068750001 4.4000001 0.22727272
-1.375 0 4.4000001 0.22727272
-0.61875004 0 4.4000001 0.22727272
2.8875 0 4.4000001 0.22727272
3.09375 0 4.4000001 0.22727272
3.1625001 0 4.4000001 0.22727272
3.4375 0 4.4000001 0.22727272
3.5062501 0 4.4000001 0.22727272
3.575 0 4.4000001 0.22727272
-0.75625002 0.068750001 4.4000001 0.22727272
-0.6875 0.068750001 4.4000001 0.22727272
-0.61875004 0.068750001 4.4000001 0.22727272
1.375 0.068750001 4.4000001 0.22727272
1.44375 0.068750001 4.4000001 0.22727272
1.7875 0.068750001 4.4000001 0.22727272
1.85625 0.068750001 4.4000001 0.22727272
1.9250001 0.068750001 4.4000001 0.22727272
1.9937501 0.068750001 4.4000001 0.22727272
2.0625 0.068750001 4.4000001 0.22727272
2.8875 0.068750001 4.4000001 0.22727272
2.95625 0.068750001 4.4000001 0.22727272
3.0250001 0.068750001 4.4000001 0.22727272
3.09375 0.068750001 4.4000001 0.22727272
3.1625001 0.068750001 4.4000001 0.22727272
3.5062501 0.068750001 4.4000001 0.22727272
3.6437502 0.068750001 4.4000001 0.22727272
3.7125001 0.068750001 4.4000001 0.22727272
3.78125 0.068750001 4.4000001 0.22727272
-0.82499999 0.1375 4.4000001 0.22727272
-0.34375 0.1375 4.4000001 0.22727272
-0.27500001 0.1375 4.4000001 0.22727272
3.0250001 0.1375 4.4000001 0.22727272
0.33344704 0.014819868 0.47423577 2.1086557
3.1625001 0.1375 4.4000001 0.22727272
3.3687501 0.1375 4.4000001 0.22727272
3.4375 0.1375 4.4000001 0.22727272
3.5062501 0.1375 4.4000001 0.22727272
3.575 0.1375 4.4000001 0.22727272
3.6437502 0.1375 4.4000001 0.22727272
3.7125001 0.1375 4.4000001 0.22727272
3.78125 0.1375 4.4000001 0.22727272
-0.34375 0.20625 4.4000001 0.22727272
-0.27500001 0.20625 4.4000001 0.22727272
3.09375 0.20625001 4.4000001 0.22727272
3.1625001 0.20625001 4.4000001 0.22727272
3.575 0.20625 4.4000001 0.22727272
3.8500001 0.20625 4.4000001 0.22727272
3.91875 0.20625001 4.4000001 0.22727272
3.575 0.27500001 4.4000001 0.22727272
3.6437502 0.27500001 4.4000001 0.22727272
